-0.046119794249535	0.43106603622437	0.84743368625641	0	-1.4451326608658	2.6249751186371
-0.046141162514687	0.44095996022224	0.81756329536438	0	-1.4451326608658	2.6808256530762
-0.046126797795296	0.44917073845863	0.7871869802475	0	-1.4451326608658	2.7366761875153
-0.046127930283546	0.45567321777344	0.75639981031418	0	-1.4451326608658	2.7925267219543
-0.046078909188509	0.006986390799284	0.12043204903603	0	-1.4137167334557	-1.954768705368
-0.046065472066402	-0.024098977446556	0.11554950475693	0	-1.4137167334557	-1.898918170929
-0.046041309833527	-0.055408153682947	0.112409055233	0	-1.4137167334557	-1.8430676364899
-0.046016052365303	-0.086844719946384	0.11102280020714	0	-1.4137167334557	-1.7872171020508
-0.04602424800396	-0.11830945312977	0.111392557621	0	-1.4137167334557	-1.7313665676117
-0.046040661633015	-0.14970467984676	0.11351919174194	0	-1.4137167334557	-1.6755160331726
-0.046045746654272	-0.18093137443066	0.1173934340477	0	-1.4137167334557	-1.6196654987335
-0.046025723218918	-0.21189446747303	0.12300661206245	0	-1.4137167334557	-1.5638149642944
-0.046016927808523	-0.24249492585659	0.13033813238144	0	-1.4137167334557	-1.5079644298553
-0.046004664152861	-0.27263832092285	0.13936671614647	0	-1.4137167334557	-1.4521138954163
-0.046008303761482	-0.30223119258881	0.15006372332573	0	-1.4137167334557	-1.3962633609772
-0.046002320945263	-0.33117961883545	0.16239365935326	0	-1.4137167334557	-1.3404128265381
-0.045993492007256	-0.35939604043961	0.176324903965	0	-1.4137167334557	-1.284562292099
-0.046014592051506	-0.38679033517838	0.19180679321289	0	-1.4137167334557	-1.2287117576599
-0.046039700508118	-0.41327756643295	0.20879289507866	0	-1.4137167334557	-1.1728612232208
-0.046038843691349	-0.43877530097961	0.22723254561424	0	-1.4137167334557	-1.1170106887817
-0.046050652861595	-0.65722727775574	0.72426342964172	0	-1.4137167334557	-0.11170106887817
-0.04607205092907	-0.65357047319412	0.75551599264145	0	-1.4137167334557	-0.055850534439087
-0.04606319963932	-0.6481751203537	0.78651577234268	0	-1.4137167334557	0.0
-0.046076133847237	-0.64105701446533	0.81716799736023	0	-1.4137167334557	0.055850534439087
-0.046088367700577	-0.63223940134048	0.84737348556519	0	-1.4137167334557	0.11170106887817
-0.046087026596069	-0.62175011634827	0.87703877687454	0	-1.4137167334557	0.16755160331726
-0.04607780277729	-0.60962027311325	0.90607482194901	0	-1.4137167334557	0.22340213775635
-0.046086803078651	-0.59588837623596	0.93438738584518	0	-1.4137167334557	0.27925267219543
-0.046102166175842	-0.58059811592102	0.96188819408417	0	-1.4137167334557	0.33510320663452
-0.046102285385132	-0.56379663944244	0.98849302530289	0	-1.4137167334557	0.39095374107361
-0.046100482344627	-0.54553645849228	1.0141180753708	0	-1.4137167334557	0.4468042755127
-0.046124890446663	-0.52587330341339	1.0386852025986	0	-1.4137167334557	0.50265480995178
-0.046133875846863	-0.50487035512924	1.0621147155762	0	-1.4137167334557	0.55850534439087
-0.04611699283123	-0.48259168863297	1.0843365192413	0	-1.4137167334557	0.61435587882996
-0.046113923192024	-0.45910626649857	1.105281829834	0	-1.4137167334557	0.67020641326904
-0.046115100383759	-0.43448966741562	1.1248807907104	0	-1.4137167334557	0.72605694770813
-0.046114087104797	-0.40881776809692	1.1430747509003	0	-1.4137167334557	0.78190748214722
-0.04610538482666	-0.382169008255	1.159809589386	0	-1.4137167334557	0.8377580165863
-0.046100698411465	-0.35462844371796	1.1750290393829	0	-1.4137167334557	0.89360855102539
-0.046098090708256	-0.32628044486046	1.1886876821518	0	-1.4137167334557	0.94945908546448
-0.046078830957413	-0.29721510410309	1.2007421255112	0	-1.4137167334557	1.0053096199036
-0.046054251492023	-0.26752156019211	1.211156129837	0	-1.4137167334557	1.0611601543427
-0.046059764921665	-0.23729366064072	1.2198959589005	0	-1.4137167334557	1.1170106887817
-0.046080276370049	-0.20662423968315	1.2269353866577	0	-1.4137167334557	1.1728612232208
-0.046102486550808	-0.17561040818691	1.2322511672974	0	-1.4137167334557	1.2287117576599
-0.046112205833197	-0.14434799551964	1.2358272075653	0	-1.4137167334557	1.284562292099
-0.046128913760185	-0.11293522268534	1.2376524209976	0	-1.4137167334557	1.3404128265381
-0.046133160591125	-0.081468217074871	1.2377226352692	0	-1.4137167334557	1.3962633609772
-0.046139545738697	-0.0500483289361	1.2360343933105	0	-1.4137167334557	1.4521138954163
-0.046153891831636	-0.018769510090351	1.2325963973999	0	-1.4137167334557	1.5079644298553
-0.04617790132761	0.012267794460058	1.2274171113968	0	-1.4137167334557	1.5638149642944
-0.04619137570262	0.042967334389687	1.220513343811	0	-1.4137167334557	1.6196654987335
-0.046188253909349	0.073234058916569	1.2119065523148	0	-1.4137167334557	1.6755160331726
-0.0461883880198	0.10297283530235	1.2016241550446	0	-1.4137167334557	1.7313665676117
-0.046198252588511	0.13209064304829	1.1896966695786	0	-1.4137167334557	1.7872171020508
-0.046220846474171	0.16049806773663	1.1761631965637	0	-1.4137167334557	1.8430676364899
-0.046232156455517	0.18810543417931	1.1610647439957	0	-1.4137167334557	1.898918170929
-0.046236835420132	0.21482682228088	1.1444487571716	0	-1.4137167334557	1.954768705368
-0.046242885291576	0.24057996273041	1.1263673305511	0	-1.4137167334557	2.0106192398071
-0.046229474246502	0.2652822136879	1.1068761348724	0	-1.4137167334557	2.0664697742462
-0.046200834214687	0.28885957598686	1.0860369205475	0	-1.4137167334557	2.1223203086853
-0.046180225908756	0.31123653054237	1.0639137029648	0	-1.4137167334557	2.1781708431244
-0.046174615621567	0.33234196901321	1.040575504303	0	-1.4137167334557	2.2340213775635
-0.046152383089066	0.35211312770844	1.0160961151123	0	-1.4137167334557	2.2898719120026
-0.046127915382385	0.37048667669296	0.99055117368698	0	-1.4137167334557	2.3457224464417
-0.046116560697556	0.38740485906601	0.96402025222778	0	-1.4137167334557	2.4015729808807
-0.046096071600914	0.40281665325165	0.93658655881882	0	-1.4137167334557	2.4574235153198
-0.04607492685318	0.41667279601097	0.90833473205566	0	-1.4137167334557	2.5132740497589
-0.046054661273956	0.42893055081367	0.87935388088226	0	-1.4137167334557	2.569124584198
-0.046039491891861	0.43955057859421	0.84973376989365	0	-1.4137167334557	2.6249751186371
-0.046028628945351	0.4485011100769	0.81956702470779	0	-1.4137167334557	2.6808256530762
-0.046027258038521	0.45575359463692	0.78894817829132	0	-1.4137167334557	2.7366761875153
-0.046006232500076	0.46128594875336	0.75797152519226	0	-1.4137167334557	2.7925267219543
-0.046018719673157	-0.0071548484265804	0.13641104102135	0	-1.3823008060455	-1.954768705368
-0.046048417687416	-0.038378499448299	0.13250744342804	0	-1.3823008060455	-1.898918170929
-0.04604633897543	-0.069771498441696	0.13035324215889	0	-1.3823008060455	-1.8430676364899
-0.046051345765591	-0.10123531520367	0.12995409965515	0	-1.3823008060455	-1.7872171020508
-0.046031285077333	-0.13267277181149	0.13131165504456	0	-1.3823008060455	-1.7313665676117
-0.04602013155818	-0.16398578882217	0.13442331552505	0	-1.3823008060455	-1.6755160331726
-0.046003267168999	-0.19507589936256	0.13927718997002	0	-1.3823008060455	-1.6196654987335
-0.046011656522751	-0.22584635019302	0.14585930109024	0	-1.3823008060455	-1.5638149642944
-0.046015072613955	-0.25620168447495	0.15414837002754	0	-1.3823008060455	-1.5079644298553
-0.046010959893465	-0.28604698181152	0.16411915421486	0	-1.3823008060455	-1.4521138954163
-0.046002984046936	-0.31528940796852	0.17574048042297	0	-1.3823008060455	-1.3962633609772
-0.04601576924324	-0.34383711218834	0.18897619843483	0	-1.3823008060455	-1.3404128265381
-0.046024441719055	-0.37160161137581	0.20378366112709	0	-1.3823008060455	-1.284562292099
-0.046045333147049	-0.39849624037743	0.22012007236481	0	-1.3823008060455	-1.2287117576599
-0.046049550175667	-0.42443668842316	0.23792877793312	0	-1.3823008060455	-1.1728612232208
-0.046014368534088	-0.65207552909851	0.76080727577209	0	-1.3823008060455	-0.11170106887817
-0.04601763188839	-0.64743906259537	0.79192996025085	0	-1.3823008060455	-0.055850534439087
-0.046016991138458	-0.64107203483582	0.82274603843689	0	-1.3823008060455	0.0
-0.046021521091461	-0.63299512863159	0.85315781831741	0	-1.3823008060455	0.055850534439087
-0.046020284295082	-0.62323278188705	0.88307249546051	0	-1.3823008060455	0.11170106887817
-0.046029150485992	-0.61181712150574	0.9123929142952	0	-1.3823008060455	0.16755160331726
-0.046036496758461	-0.59878081083298	0.9410343170166	0	-1.3823008060455	0.22340213775635
-0.046040400862694	-0.58416694402695	0.96890074014664	0	-1.3823008060455	0.27925267219543
-0.046056419610977	-0.56801998615265	0.99590867757797	0	-1.3823008060455	0.33510320663452
-0.046087890863419	-0.55039125680923	1.021971821785	0	-1.3823008060455	0.39095374107361
-0.046101346611977	-0.53133410215378	1.0470118522644	0	-1.3823008060455	0.4468042755127
-0.046099796891212	-0.51090878248215	1.0709496736526	0	-1.3823008060455	0.50265480995178
-0.046107575297356	-0.4891802072525	1.0937080383301	0	-1.3823008060455	0.55850534439087
-0.046125695109367	-0.46621385216713	1.1152193546295	0	-1.3823008060455	0.61435587882996
-0.046132668852806	-0.44208359718323	1.1354142427444	0	-1.3823008060455	0.67020641326904
-0.046136632561684	-0.41686296463013	1.1542313098907	0	-1.3823008060455	0.72605694770813
-0.046126447618008	-0.39063182473183	1.1716103553772	0	-1.3823008060455	0.78190748214722
-0.046106971800327	-0.36347115039825	1.1874985694885	0	-1.3823008060455	0.8377580165863
-0.046092361211777	-0.33546647429466	1.2018449306488	0	-1.3823008060455	0.89360855102539
-0.046095386147499	-0.30670323967934	1.2146077156067	0	-1.3823008060455	0.94945908546448
-0.04609152674675	-0.27727410197258	1.225742816925	0	-1.3823008060455	1.0053096199036
-0.046074584126472	-0.24726887047291	1.2352182865143	0	-1.3823008060455	1.0611601543427
-0.046066761016846	-0.21678000688553	1.2430057525635	0	-1.3823008060455	1.1170106887817
-0.046072699129581	-0.18590487539768	1.2490776777267	0	-1.3823008060455	1.1728612232208
-0.046057105064392	-0.1547394245863	1.2534170150757	0	-1.3823008060455	1.2287117576599
-0.046032898128033	-0.12337952852249	1.2560098171234	0	-1.3823008060455	1.284562292099
-0.046015724539757	-0.091924503445625	1.256847858429	0	-1.3823008060455	1.3404128265381
-0.046017505228519	-0.060471937060356	1.2559282779694	0	-1.3823008060455	1.3962633609772
-0.04602986946702	-0.029119953513145	1.2532546520233	0	-1.3823008060455	1.4521138954163
-0.046058714389801	0.0020343139767647	1.2488353252411	0	-1.3823008060455	1.5079644298553
-0.046079590916634	0.032893639057875	1.2426835298538	0	-1.3823008060455	1.5638149642944
-0.04606706276536	0.063361741602421	1.2348194122314	0	-1.3823008060455	1.6196654987335
-0.046058312058449	0.093342058360577	1.225265622139	0	-1.3823008060455	1.6755160331726
-0.046083346009254	0.12274333834648	1.2140539884567	0	-1.3823008060455	1.7313665676117
-0.046102896332741	0.15147265791893	1.2012178897858	0	-1.3823008060455	1.7872171020508
-0.046124584972858	0.17944073677063	1.1867989301682	0	-1.3823008060455	1.8430676364899
-0.046128287911415	0.2065616697073	1.1708415746689	0	-1.3823008060455	1.898918170929
-0.046121962368488	0.23274779319763	1.1533942222595	0	-1.3823008060455	1.954768705368
-0.046120420098305	0.25791984796524	1.1345126628876	0	-1.3823008060455	2.0106192398071
-0.046101145446301	0.28199887275696	1.1142554283142	0	-1.3823008060455	2.0664697742462
-0.04610575735569	0.30490916967392	1.0926852226257	0	-1.3823008060455	2.1223203086853
-0.046118415892124	0.32657951116562	1.0698702335358	0	-1.3823008060455	2.1781708431244
-0.046146869659424	0.34694248437881	1.0458807945251	0	-1.3823008060455	2.2340213775635
-0.046146899461746	0.36593472957611	1.0207924842834	0	-1.3823008060455	2.2898719120026
-0.046151638031006	0.38349688053131	0.99468314647675	0	-1.3823008060455	2.3457224464417
-0.046172499656677	0.39957422018051	0.96763372421265	0	-1.3823008060455	2.4015729808807
-0.046166375279427	0.41411602497101	0.93972915410995	0	-1.3823008060455	2.4574235153198
-0.046172440052032	0.42707830667496	0.91105616092682	0	-1.3823008060455	2.5132740497589
-0.046167060732841	0.43841940164566	0.88170439004898	0	-1.3823008060455	2.569124584198
-0.046168029308319	0.44810536503792	0.8517655134201	0	-1.3823008060455	2.6249751186371
-0.046169757843018	0.45610347390175	0.82133257389069	0	-1.3823008060455	2.6808256530762
-0.046150639653206	0.46239084005356	0.79050052165985	0	-1.3823008060455	2.7366761875153
-0.046138510107994	0.4669474363327	0.7593657374382	0	-1.3823008060455	2.7925267219543
-0.046147607266903	-0.020786613225937	0.15282660722733	0	-1.3508848786354	-1.954768705368
-0.046150341629982	-0.052117336541414	0.14990523457527	0	-1.3508848786354	-1.898918170929
-0.046165399253368	-0.08356286585331	0.14873760938644	0	-1.3508848786354	-1.8430676364899
-0.046144369989634	-0.11502393335104	0.14932808279991	0	-1.3508848786354	-1.7872171020508
-0.046123519539833	-0.14640326797962	0.15167278051376	0	-1.3508848786354	-1.7313665676117
-0.046109892427921	-0.17760223150253	0.15576541423798	0	-1.3508848786354	-1.6755160331726
-0.046108581125736	-0.2085245847702	0.16159409284592	0	-1.3508848786354	-1.6196654987335
-0.046111062169075	-0.23907279968262	0.16913762688637	0	-1.3508848786354	-1.5638149642944
-0.046119187027216	-0.26915323734283	0.17837762832642	0	-1.3508848786354	-1.5079644298553
-0.046132013201714	-0.29867050051689	0.18928077816963	0	-1.3508848786354	-1.4521138954163
-0.046127833425999	-0.32753276824951	0.20181280374527	0	-1.3508848786354	-1.3962633609772
-0.046110592782497	-0.35565137863159	0.21594035625458	0	-1.3508848786354	-1.3404128265381
-0.046086318790913	-0.38293713331223	0.23161426186562	0	-1.3508848786354	-1.284562292099
-0.046059794723988	-0.40930530428886	0.24878612160683	0	-1.3508848786354	-1.2287117576599
-0.046018242835999	-0.64964997768402	0.76594483852386	0	-1.3508848786354	-0.16755160331726
-0.04599329829216	-0.64577531814575	0.79717093706131	0	-1.3508848786354	-0.11170106887817
-0.04597295820713	-0.64016336202621	0.82813322544098	0	-1.3508848786354	-0.055850534439087
-0.04593800008297	-0.63283163309097	0.85873436927795	0	-1.3508848786354	0.0
-0.045930117368698	-0.62380349636078	0.88887721300125	0	-1.3508848786354	0.055850534439087
-0.045905947685242	-0.61310648918152	0.91847002506256	0	-1.3508848786354	0.11170106887817
-0.045873269438744	-0.60077428817749	0.94741946458817	0	-1.3508848786354	0.16755160331726
-0.045862480998039	-0.58684521913528	0.9756355881691	0	-1.3508848786354	0.22340213775635
-0.045856267213821	-0.57136291265488	1.0030297040939	0	-1.3508848786354	0.27925267219543
-0.045863181352615	-0.55437570810318	1.0295165777206	0	-1.3508848786354	0.33510320663452
-0.045855671167374	-0.53593611717224	1.0550150871277	0	-1.3508848786354	0.39095374107361
-0.045874029397964	-0.51610279083252	1.0794422626495	0	-1.3508848786354	0.4468042755127
-0.04588358104229	-0.49493527412415	1.1027269363403	0	-1.3508848786354	0.50265480995178
-0.045890092849731	-0.47250258922577	1.1247916221619	0	-1.3508848786354	0.55850534439087
-0.045890301465988	-0.44887226819992	1.1455709934235	0	-1.3508848786354	0.61435587882996
-0.045893922448158	-0.42411977052689	1.1649973392487	0	-1.3508848786354	0.67020641326904
-0.045914404094219	-0.39832037687302	1.1830132007599	0	-1.3508848786354	0.72605694770813
-0.045931257307529	-0.37155610322952	1.1995604038239	0	-1.3508848786354	0.78190748214722
-0.04593675583601	-0.34390965104103	1.2145873308182	0	-1.3508848786354	0.8377580165863
-0.045945957303047	-0.31546795368195	1.2280477285385	0	-1.3508848786354	0.89360855102539
-0.045970171689987	-0.28631889820099	1.2398992776871	0	-1.3508848786354	0.94945908546448
-0.045977622270584	-0.25655284523964	1.2501058578491	0	-1.3508848786354	1.0053096199036
-0.046001255512238	-0.22626496851444	1.2586340904236	0	-1.3508848786354	1.0611601543427
-0.046026207506657	-0.19554716348648	1.2654590606689	0	-1.3508848786354	1.1170106887817
-0.0460544526577	-0.16449823975563	1.2705569267273	0	-1.3508848786354	1.1728612232208
-0.046062011271715	-0.13321088254452	1.2739154100418	0	-1.3508848786354	1.2287117576599
-0.046038020402193	-0.10178472846746	1.2755225896835	0	-1.3508848786354	1.284562292099
-0.046039436012506	-0.070318825542927	1.2753720283508	0	-1.3508848786354	1.3404128265381
-0.046023737639189	-0.03891047090292	1.2734656333923	0	-1.3508848786354	1.3962633609772
-0.045997448265553	-0.0076575055718422	1.2698081731796	0	-1.3508848786354	1.4521138954163
-0.045982524752617	0.023343913257122	1.2644129991531	0	-1.3508848786354	1.5079644298553
-0.045993521809578	0.053993884474039	1.2572946548462	0	-1.3508848786354	1.5638149642944
-0.046007618308067	0.084199279546738	1.2484768629074	0	-1.3508848786354	1.6196654987335
-0.046037375926971	0.11386575549841	1.2379870414734	0	-1.3508848786354	1.6755160331726
-0.046054515987635	0.14289984107018	1.2258567810059	0	-1.3508848786354	1.7313665676117
-0.046079508960247	0.17121168971062	1.2121250629425	0	-1.3508848786354	1.7872171020508
-0.046092942357063	0.19871334731579	1.1968348026276	0	-1.3508848786354	1.8430676364899
-0.046096451580524	0.22531792521477	1.1800322532654	0	-1.3508848786354	1.898918170929
-0.04608628153801	0.25094425678253	1.1617720127106	0	-1.3508848786354	1.954768705368
-0.046059370040894	0.27550995349884	1.1421086788177	0	-1.3508848786354	2.0106192398071
-0.046042278409004	0.29894053936005	1.1211049556732	0	-1.3508848786354	2.0664697742462
-0.046041816473007	0.32116195559502	1.0988260507584	0	-1.3508848786354	2.1223203086853
-0.046057887375355	0.34210467338562	1.0753417015076	0	-1.3508848786354	2.1781708431244
-0.046086311340332	0.3617043197155	1.0507243871689	0	-1.3508848786354	2.2340213775635
-0.046091690659523	0.37989914417267	1.0250518321991	0	-1.3508848786354	2.2898719120026
-0.046108856797218	0.39663231372833	0.99840354919434	0	-1.3508848786354	2.3457224464417
-0.046102419495583	0.41185128688812	0.97086238861084	0	-1.3508848786354	2.4015729808807
-0.046078756451607	0.42551022768021	0.94251507520676	0	-1.3508848786354	2.4574235153198
-0.046062484383583	0.43756490945816	0.91344922780991	0	-1.3508848786354	2.5132740497589
-0.046055972576141	0.44797843694687	0.8837559223175	0	-1.3508848786354	2.569124584198
-0.046074032783508	0.45671850442886	0.85352730751038	0	-1.3508848786354	2.6249751186371
-0.046064823865891	0.46375703811646	0.82285815477371	0	-1.3508848786354	2.6808256530762
-0.04604409635067	0.4690722823143	0.79184377193451	0	-1.3508848786354	2.7366761875153
-0.04603374004364	0.47264903783798	0.7605813741684	0	-1.3508848786354	2.7925267219543
-0.046059478074312	0.02834989130497	0.17877060174942	0	-1.3194689512253	-2.0664697742462
-0.046073615550995	-0.0026459544897079	0.17334643006325	0	-1.3194689512253	-2.0106192398071
-0.046091377735138	-0.033896293491125	0.16966119408607	0	-1.3194689512253	-1.954768705368
-0.046103049069643	-0.065303161740303	0.16772544384003	0	-1.3194689512253	-1.898918170929
-0.046102058142424	-0.096769273281097	0.16754603385925	0	-1.3194689512253	-1.8430676364899
-0.046095807105303	-0.12819665670395	0.16912364959717	0	-1.3194689512253	-1.7872171020508
-0.046081274747849	-0.15948654711246	0.17245301604271	0	-1.3194689512253	-1.7313665676117
-0.046082150191069	-0.19054192304611	0.17752432823181	0	-1.3194689512253	-1.6755160331726
-0.046099845319986	-0.22126567363739	0.18431982398033	0	-1.3194689512253	-1.6196654987335
-0.046117253601551	-0.25156307220459	0.19282224774361	0	-1.3194689512253	-1.5638149642944
-0.046132449060678	-0.2813378572464	0.20300063490868	0	-1.3194689512253	-1.5079644298553
-0.046135924756527	-0.31049802899361	0.21482565999031	0	-1.3194689512253	-1.4521138954163
-0.046114630997181	-0.33895272016525	0.22825983166695	0	-1.3194689512253	-1.3962633609772
-0.046102307736874	-0.36661341786385	0.2432624399662	0	-1.3194689512253	-1.3404128265381
-0.046097718179226	-0.39339333772659	0.25978538393974	0	-1.3194689512253	-1.284562292099
-0.046108782291412	-0.64630162715912	0.77091777324677	0	-1.3194689512253	-0.22340213775635
-0.04610151052475	-0.64319038391113	0.80223059654236	0	-1.3194689512253	-0.16755160331726
-0.046111464500427	-0.63833665847778	0.83331894874573	0	-1.3194689512253	-0.11170106887817
-0.046125188469887	-0.63175487518311	0.86409068107605	0	-1.3194689512253	-0.055850534439087
-0.046125262975693	-0.62346655130386	0.89444398880005	0	-1.3194689512253	0.0
-0.046110823750496	-0.61349487304688	0.92429113388062	0	-1.3194689512253	0.055850534439087
-0.046114936470985	-0.60187363624573	0.95353281497955	0	-1.3194689512253	0.11170106887817
-0.046124175190926	-0.58863925933838	0.98207902908325	0	-1.3194689512253	0.16755160331726
-0.046118542551994	-0.57383054494858	1.0098438262939	0	-1.3194689512253	0.22340213775635
-0.04611074924469	-0.55749469995499	1.0367398262024	0	-1.3194689512253	0.27925267219543
-0.046104162931442	-0.53968399763107	1.0626797676086	0	-1.3194689512253	0.33510320663452
-0.046088367700577	-0.52045321464539	1.0875853300095	0	-1.3194689512253	0.39095374107361
-0.046078115701675	-0.49986186623573	1.1113787889481	0	-1.3194689512253	0.4468042755127
-0.04608453810215	-0.47797501087189	1.133985042572	0	-1.3194689512253	0.50265480995178
-0.046086236834526	-0.45485889911652	1.1553356647491	0	-1.3194689512253	0.55850534439087
-0.046075418591499	-0.43058875203133	1.1753611564636	0	-1.3194689512253	0.61435587882996
-0.046101242303848	-0.40523692965508	1.1940019130707	0	-1.3194689512253	0.67020641326904
-0.046120353043079	-0.37888631224632	1.2111963033676	0	-1.3194689512253	0.72605694770813
-0.046136006712914	-0.35161393880844	1.2268965244293	0	-1.3194689512253	0.78190748214722
-0.046124361455441	-0.32351025938988	1.2410464286804	0	-1.3194689512253	0.8377580165863
-0.046101436018944	-0.29465842247009	1.2536082267761	0	-1.3194689512253	0.89360855102539
-0.046094574034214	-0.26515114307404	1.2645390033722	0	-1.3194689512253	0.94945908546448
-0.046098791062832	-0.23508054018021	1.2738041877747	0	-1.3194689512253	1.0053096199036
-0.046096581965685	-0.20453849434853	1.2813777923584	0	-1.3194689512253	1.0611601543427
-0.046120475977659	-0.1736221909523	1.2872338294983	0	-1.3194689512253	1.1170106887817
-0.04613696038723	-0.1424266397953	1.2913558483124	0	-1.3194689512253	1.1728612232208
-0.046155259013176	-0.1110517308116	1.2937276363373	0	-1.3194689512253	1.2287117576599
-0.046178579330444	-0.079590067267418	1.2943475246429	0	-1.3194689512253	1.284562292099
-0.046181555837393	-0.048144161701202	1.2932088375092	0	-1.3194689512253	1.3404128265381
-0.046167850494385	-0.016811434179544	1.2903161048889	0	-1.3194689512253	1.3962633609772
-0.046159692108631	0.014312662184238	1.285679936409	0	-1.3194689512253	1.4521138954163
-0.046161230653524	0.045127261430025	1.2793128490448	0	-1.3194689512253	1.5079644298553
-0.04617502912879	0.075539097189903	1.2712354660034	0	-1.3194689512253	1.5638149642944
-0.046202033758163	0.10545343160629	1.2614736557007	0	-1.3194689512253	1.6196654987335
-0.046204529702663	0.13477453589439	1.2500561475754	0	-1.3194689512253	1.6755160331726
-0.046195581555367	0.16341423988342	1.2370203733444	0	-1.3194689512253	1.7313665676117
-0.046187028288841	0.19128236174583	1.2224063873291	0	-1.3194689512253	1.7872171020508
-0.046209871768951	0.21829012036324	1.2062594890594	0	-1.3194689512253	1.8430676364899
-0.046219915151596	0.24435438215733	1.1886301040649	0	-1.3194689512253	1.898918170929
-0.0462376922369	0.26939302682877	1.1695729494095	0	-1.3194689512253	1.954768705368
-0.046241037547588	0.29332888126373	1.1491479873657	0	-1.3194689512253	2.0106192398071
-0.046222150325775	0.31608736515045	1.1274183988571	0	-1.3194689512253	2.0664697742462
-0.04620299488306	0.33759927749634	1.1044529676437	0	-1.3194689512253	2.1223203086853
-0.046189486980438	0.35779425501823	1.0803220272064	0	-1.3194689512253	2.1781708431244
-0.046175003051758	0.37661063671112	1.0551013946533	0	-1.3194689512253	2.2340213775635
-0.046172976493835	0.39399012923241	1.0288699865341	0	-1.3194689512253	2.2898719120026
-0.046174615621567	0.40987768769264	1.001708984375	0	-1.3194689512253	2.3457224464417
-0.046179473400116	0.42422434687614	0.97370362281799	0	-1.3194689512253	2.4015729808807
-0.046191602945328	0.43698608875275	0.94494122266769	0	-1.3194689512253	2.4574235153198
-0.046210572123528	0.44812285900116	0.91551113128662	0	-1.3194689512253	2.5132740497589
-0.046212166547775	0.45759811997414	0.88550525903702	0	-1.3194689512253	2.569124584198
-0.046189218759537	0.46538403630257	0.85501706600189	0	-1.3194689512253	2.6249751186371
-0.04618963599205	0.471455514431	0.82414191961288	0	-1.3194689512253	2.6808256530762
-0.046195939183235	0.47579470276833	0.79297626018524	0	-1.3194689512253	2.7366761875153
-0.04618975520134	0.47838741540909	0.76161640882492	0	-1.3194689512253	2.7925267219543
-0.046145752072334	0.01603177934885	0.19404920935631	0	-1.2880530238152	-2.0664697742462
-0.046123303472996	-0.015118461102247	0.18960052728653	0	-1.2880530238152	-2.0106192398071
-0.046114161610603	-0.04646909981966	0.18689849972725	0	-1.2880530238152	-1.954768705368
-0.046094376593828	-0.077921569347382	0.18595111370087	0	-1.2880530238152	-1.898918170929
-0.046066176146269	-0.10937805473804	0.18676084280014	0	-1.2880530238152	-1.8430676364899
-0.046058431267738	-0.14073991775513	0.18932449817657	0	-1.2880530238152	-1.7872171020508
-0.046055898070335	-0.17191007733345	0.1936351954937	0	-1.2880530238152	-1.7313665676117
-0.046048298478127	-0.20279081165791	0.19967865943909	0	-1.2880530238152	-1.6755160331726
-0.046021293848753	-0.23328617215157	0.20743748545647	0	-1.2880530238152	-1.6196654987335
-0.046010971069336	-0.26330071687698	0.21688538789749	0	-1.2880530238152	-1.5638149642944
-0.045991383492947	-0.29274117946625	0.22799351811409	0	-1.2880530238152	-1.5079644298553
-0.04596621543169	-0.32151591777802	0.24073046445847	0	-1.2880530238152	-1.4521138954163
-0.045948475599289	-0.34953480958939	0.25505179166794	0	-1.2880530238152	-1.3962633609772
-0.045931771397591	-0.37671035528183	0.27091521024704	0	-1.2880530238152	-1.3404128265381
-0.045921891927719	-0.6414532661438	0.71280980110168	0	-1.2880530238152	-0.39095374107361
-0.045902654528618	-0.64262098073959	0.74425482749939	0	-1.2880530238152	-0.33510320663452
-0.045904844999313	-0.64203155040741	0.77571558952332	0	-1.2880530238152	-0.27925267219543
-0.045897796750069	-0.63968670368195	0.80709326267242	0	-1.2880530238152	-0.22340213775635
-0.045895978808403	-0.63559377193451	0.83829307556152	0	-1.2880530238152	-0.16755160331726
-0.045927330851555	-0.62976539134979	0.86921620368958	0	-1.2880530238152	-0.11170106887817
-0.045933574438095	-0.62222021818161	0.89976525306702	0	-1.2880530238152	-0.055850534439087
-0.045952811837196	-0.6129823923111	0.92984360456467	0	-1.2880530238152	0.0
-0.045964509248734	-0.6020792722702	0.95936036109924	0	-1.2880530238152	0.055850534439087
-0.04595547914505	-0.58954566717148	0.9882230758667	0	-1.2880530238152	0.11170106887817
-0.045941784977913	-0.57542026042938	1.016340970993	0	-1.2880530238152	0.16755160331726
-0.045943662524223	-0.55974751710892	1.043625831604	0	-1.2880530238152	0.22340213775635
-0.045929715037346	-0.54257506132126	1.0699954032898	0	-1.2880530238152	0.27925267219543
-0.045939907431602	-0.52395832538605	1.0953637361526	0	-1.2880530238152	0.33510320663452
-0.045966014266014	-0.50395488739014	1.1196521520615	0	-1.2880530238152	0.39095374107361
-0.045984983444214	-0.48262465000153	1.1427894830704	0	-1.2880530238152	0.4468042755127
-0.045982211828232	-0.46003845334053	1.1646971702576	0	-1.2880530238152	0.50265480995178
-0.045978471636772	-0.43626427650452	1.1853097677231	0	-1.2880530238152	0.55850534439087
-0.045973874628544	-0.41137772798538	1.2045621871948	0	-1.2880530238152	0.61435587882996
-0.045970194041729	-0.38545396924019	1.2223968505859	0	-1.2880530238152	0.67020641326904
-0.045959986746311	-0.35857382416725	1.2387573719025	0	-1.2880530238152	0.72605694770813
-0.045984007418156	-0.33082407712936	1.2535909414291	0	-1.2880530238152	0.78190748214722
-0.045998610556126	-0.30228695273399	1.2668541669846	0	-1.2880530238152	0.8377580165863
-0.045997463166714	-0.27305793762207	1.2785000801086	0	-1.2880530238152	0.89360855102539
-0.045994527637959	-0.24322034418583	1.2885000705719	0	-1.2880530238152	0.94945908546448
-0.045995570719242	-0.2128741145134	1.296816110611	0	-1.2880530238152	1.0053096199036
-0.045983366668224	-0.18211054801941	1.3034254312515	0	-1.2880530238152	1.0611601543427
-0.045973893254995	-0.15102323889732	1.3083093166351	0	-1.2880530238152	1.1170106887817
-0.045970659703016	-0.11971446126699	1.3114488124847	0	-1.2880530238152	1.1728612232208
-0.045954518020153	-0.08828017860651	1.3128343820572	0	-1.2880530238152	1.2287117576599
-0.045966111123562	-0.05681311711669	1.3124659061432	0	-1.2880530238152	1.284562292099
-0.045979298651218	-0.025418136268854	1.3103401660919	0	-1.2880530238152	1.3404128265381
-0.04599491506815	0.0058078467845917	1.3064649105072	0	-1.2880530238152	1.3962633609772
-0.046022195369005	0.03676925227046	1.3008522987366	0	-1.2880530238152	1.4521138954163
-0.046042650938034	0.067369244992733	1.2935206890106	0	-1.2880530238152	1.5079644298553
-0.046064324676991	0.097512051463127	1.2844916582108	0	-1.2880530238152	1.5638149642944
-0.046076186001301	0.12710648775101	1.2737958431244	0	-1.2880530238152	1.6196654987335
-0.046086650341749	0.15605440735817	1.2614629268646	0	-1.2880530238152	1.6755160331726
-0.046094126999378	0.18427017331123	1.2475340366364	0	-1.2880530238152	1.7313665676117
-0.046088866889477	0.21166217327118	1.2320508956909	0	-1.2880530238152	1.7872171020508
-0.046081230044365	0.23815125226974	1.215064406395	0	-1.2880530238152	1.8430676364899
-0.046063333749771	0.26364797353745	1.1966242790222	0	-1.2880530238152	1.898918170929
-0.046075239777565	0.28807723522186	1.1767907142639	0	-1.2880530238152	1.954768705368
-0.046081334352493	0.31135967373848	1.155623793602	0	-1.2880530238152	2.0106192398071
-0.04607730358839	0.33342534303665	1.1331906318665	0	-1.2880530238152	2.0664697742462
-0.046102680265903	0.3542046546936	1.1095603704453	0	-1.2880530238152	2.1223203086853
-0.046104148030281	0.3736300766468	1.0848064422607	0	-1.2880530238152	2.1781708431244
-0.046110540628433	0.39164599776268	1.0590078830719	0	-1.2880530238152	2.2340213775635
-0.046111509203911	0.40819293260574	1.0322431325912	0	-1.2880530238152	2.2898719120026
-0.046106681227684	0.42321938276291	1.0045967102051	0	-1.2880530238152	2.3457224464417
-0.046124771237373	0.43667989969254	0.97615468502045	0	-1.2880530238152	2.4015729808807
-0.046139746904373	0.44853174686432	0.9470055103302	0	-1.2880530238152	2.4574235153198
-0.046154245734215	0.45873701572418	0.91723996400833	0	-1.2880530238152	2.5132740497589
-0.046159327030182	0.46726649999619	0.88695120811462	0	-1.2880530238152	2.569124584198
-0.046173021197319	0.47409051656723	0.85623347759247	0	-1.2880530238152	2.6249751186371
-0.04617440700531	0.47918975353241	0.82518285512924	0	-1.2880530238152	2.6808256530762
-0.046186879277229	0.48254773020744	0.79389625787735	0	-1.2880530238152	2.7366761875153
-0.046208366751671	0.48415350914001	0.76247042417526	0	-1.2880530238152	2.7925267219543
-0.046245045959949	0.0041990838944912	0.20970577001572	0	-1.256637096405	-2.0664697742462
-0.046254340559244	-0.027076281607151	0.20623880624771	0	-1.256637096405	-2.0106192398071
-0.046247664839029	-0.058496221899986	0.20452305674553	0	-1.256637096405	-1.954768705368
-0.046261366456747	-0.089962974190712	0.20456317067146	0	-1.256637096405	-1.898918170929
-0.046276643872261	-0.12137846648693	0.20636025071144	0	-1.256637096405	-1.8430676364899
-0.046296358108521	-0.1526447981596	0.20990800857544	0	-1.256637096405	-1.7872171020508
-0.046302899718285	-0.18366408348083	0.21519592404366	0	-1.256637096405	-1.7313665676117
-0.046279046684504	-0.21433980762959	0.22220674157143	0	-1.256637096405	-1.6755160331726
-0.046257447451353	-0.24457663297653	0.2309196293354	0	-1.256637096405	-1.6196654987335
-0.046262629330158	-0.2742794752121	0.2413058578968	0	-1.256637096405	-1.5638149642944
-0.046268060803413	-0.30335640907288	0.25333362817764	0	-1.256637096405	-1.5079644298553
-0.046287707984447	-0.33171659708023	0.26696664094925	0	-1.256637096405	-1.4521138954163
-0.046316549181938	-0.35927176475525	0.28216138482094	0	-1.256637096405	-1.3962633609772
-0.046336472034454	-0.6347324848175	0.71745479106903	0	-1.256637096405	-0.4468042755127
-0.046326249837875	-0.63666749000549	0.74886292219162	0	-1.256637096405	-0.39095374107361
-0.046327531337738	-0.63684749603271	0.78032767772675	0	-1.256637096405	-0.33510320663452
-0.046319007873535	-0.63526970148087	0.8117561340332	0	-1.256637096405	-0.27925267219543
-0.046311691403389	-0.63194024562836	0.84304511547089	0	-1.256637096405	-0.22340213775635
-0.04632169008255	-0.62686848640442	0.87410235404968	0	-1.256637096405	-0.16755160331726
-0.046304151415825	-0.62007242441177	0.90482598543167	0	-1.256637096405	-0.11170106887817
-0.046306073665619	-0.61157143115997	0.93512165546417	0	-1.256637096405	-0.055850534439087
-0.046278014779091	-0.60139232873917	0.96489679813385	0	-1.256637096405	0.0
-0.046270400285721	-0.58956724405289	0.99405664205551	0	-1.256637096405	0.055850534439087
-0.046260967850685	-0.57613301277161	1.0225111246109	0	-1.256637096405	0.11170106887817
-0.046260222792625	-0.56113129854202	1.0501716136932	0	-1.256637096405	0.16755160331726
-0.046266078948975	-0.54460781812668	1.0769528150558	0	-1.256637096405	0.22340213775635
-0.046254798769951	-0.52661728858948	1.1027666330338	0	-1.256637096405	0.27925267219543
-0.046224564313889	-0.50721311569214	1.1275368928909	0	-1.256637096405	0.33510320663452
-0.046216756105423	-0.48645600676537	1.1511862277985	0	-1.256637096405	0.39095374107361
-0.046198010444641	-0.46441149711609	1.1736394166946	0	-1.256637096405	0.4468042755127
-0.046195089817047	-0.44114816188812	1.1948268413544	0	-1.256637096405	0.50265480995178
-0.04619088768959	-0.41673707962036	1.2146847248077	0	-1.256637096405	0.55850534439087
-0.046206183731556	-0.39125624299049	1.2331476211548	0	-1.256637096405	0.61435587882996
-0.04618327319622	-0.36478525400162	1.2501583099365	0	-1.256637096405	0.67020641326904
-0.046159565448761	-0.33740490674973	1.2656660079956	0	-1.256637096405	0.72605694770813
-0.046152465045452	-0.30920207500458	1.2796206474304	0	-1.256637096405	0.78190748214722
-0.046142719686031	-0.28026413917542	1.2919797897339	0	-1.256637096405	0.8377580165863
-0.046119548380375	-0.25068202614784	1.302703499794	0	-1.256637096405	0.89360855102539
-0.046091727912426	-0.22054770588875	1.311759352684	0	-1.256637096405	0.94945908546448
-0.046072695404291	-0.18995310366154	1.3191194534302	0	-1.256637096405	1.0053096199036
-0.046047847718	-0.15899641811848	1.3247594833374	0	-1.256637096405	1.0611601543427
-0.046023644506931	-0.1277728676796	1.3286635875702	0	-1.256637096405	1.1170106887817
-0.046001739799976	-0.096380680799484	1.3308176994324	0	-1.256637096405	1.1728612232208
-0.045995600521564	-0.064916610717773	1.3312168121338	0	-1.256637096405	1.2287117576599
-0.045973386615515	-0.033480882644653	1.3298580646515	0	-1.256637096405	1.284562292099
-0.045963671058416	-0.0021679028868675	1.32674741745	0	-1.256637096405	1.3404128265381
-0.045945759862661	0.028922107070684	1.3218936920166	0	-1.256637096405	1.3962633609772
-0.04593488946557	0.059692900627851	1.3153119087219	0	-1.256637096405	1.4521138954163
-0.045923467725515	0.090048283338547	1.307022690773	0	-1.256637096405	1.5079644298553
-0.045934181660414	0.11989296227694	1.297052025795	0	-1.256637096405	1.5638149642944
-0.045920547097921	0.14913386106491	1.2854306697845	0	-1.256637096405	1.6196654987335
-0.045934643596411	0.17768746614456	1.2721966505051	0	-1.256637096405	1.6755160331726
-0.045950964093208	0.20544725656509	1.2573865652084	0	-1.256637096405	1.7313665676117
-0.045961804687977	0.23234121501446	1.2410510778427	0	-1.256637096405	1.7872171020508
-0.045957826077938	0.25828143954277	1.2232401371002	0	-1.256637096405	1.8430676364899
-0.045972093939781	0.28318625688553	1.2040086984634	0	-1.256637096405	1.898918170929
-0.045970514416695	0.30697956681252	1.1834173202515	0	-1.256637096405	1.954768705368
-0.045978054404259	0.32958748936653	1.1615298986435	0	-1.256637096405	2.0106192398071
-0.045978344976902	0.35093629360199	1.1384142637253	0	-1.256637096405	2.0664697742462
-0.045982241630554	0.37096273899078	1.1141431331635	0	-1.256637096405	2.1223203086853
-0.045999944210052	0.3896022439003	1.0887916088104	0	-1.256637096405	2.1781708431244
-0.045994311571121	0.40679839253426	1.0624393224716	0	-1.256637096405	2.2340213775635
-0.046009063720703	0.42249670624733	1.0351686477661	0	-1.256637096405	2.2898719120026
-0.046036154031754	0.43664795160294	1.007063627243	0	-1.256637096405	2.3457224464417
-0.046056121587753	0.44920772314072	0.97821271419525	0	-1.256637096405	2.4015729808807
-0.046054974198341	0.46013754606247	0.94870543479919	0	-1.256637096405	2.4574235153198
-0.046070799231529	0.46940392255783	0.91863441467285	0	-1.256637096405	2.5132740497589
-0.046092316508293	0.47697693109512	0.88809257745743	0	-1.256637096405	2.569124584198
-0.046119302511215	0.48283338546753	0.85717570781708	0	-1.256637096405	2.6249751186371
-0.046133026480675	0.48695480823517	0.82598042488098	0	-1.256637096405	2.6808256530762
-0.046139344573021	0.48932725191116	0.79460334777832	0	-1.256637096405	2.7366761875153
-0.04615493118763	0.48994639515877	0.76314270496368	0	-1.256637096405	2.7925267219543
-0.046188354492188	-0.007134210318327	0.2257267832756	0	-1.2252211689949	-2.0664697742462
-0.046211466193199	-0.038502730429173	0.22324353456497	0	-1.2252211689949	-2.0106192398071
-0.046193085610867	-0.069961495697498	0.22251531481743	0	-1.2252211689949	-1.954768705368
-0.046189084649086	-0.10141115635633	0.22354418039322	0	-1.2252211689949	-1.898918170929
-0.046187039464712	-0.13275462388992	0.22632709145546	0	-1.2252211689949	-1.8430676364899
-0.046168304979801	-0.16389349102974	0.23085385560989	0	-1.2252211689949	-1.7872171020508
-0.046147651970387	-0.19473174214363	0.23711368441582	0	-1.2252211689949	-1.7313665676117
-0.046121262013912	-0.22517281770706	0.24508535861969	0	-1.2252211689949	-1.6755160331726
-0.046116225421429	-0.25512117147446	0.25474351644516	0	-1.2252211689949	-1.6196654987335
-0.046118587255478	-0.28448328375816	0.26605835556984	0	-1.2252211689949	-1.5638149642944
-0.046096295118332	-0.31316843628883	0.27899417281151	0	-1.2252211689949	-1.5079644298553
-0.046070620417595	-0.62709927558899	0.72194576263428	0	-1.2252211689949	-0.50265480995178
-0.04606805741787	-0.62980246543884	0.75329434871674	0	-1.2252211689949	-0.4468042755127
-0.046071454882622	-0.630750477314	0.7847489118576	0	-1.2252211689949	-0.39095374107361
-0.046089291572571	-0.62994253635406	0.81620252132416	0	-1.2252211689949	-0.33510320663452
-0.046105921268463	-0.62737888097763	0.84756433963776	0	-1.2252211689949	-0.27925267219543
-0.046115502715111	-0.6230691075325	0.87873375415802	0	-1.2252211689949	-0.22340213775635
-0.046127080917358	-0.61702448129654	0.90961694717407	0	-1.2252211689949	-0.16755160331726
-0.046124950051308	-0.60926753282547	0.94011008739471	0	-1.2252211689949	-0.11170106887817
-0.046105310320854	-0.5998193025589	0.97012585401535	0	-1.2252211689949	-0.055850534439087
-0.046103209257126	-0.58871001005173	0.99956661462784	0	-1.2252211689949	0.0
-0.04610912501812	-0.57597601413727	1.0283390283585	0	-1.2252211689949	0.055850534439087
-0.046099260449409	-0.56165367364883	1.056360244751	0	-1.2252211689949	0.11170106887817
-0.046120673418045	-0.54579198360443	1.0835331678391	0	-1.2252211689949	0.16755160331726
-0.046140596270561	-0.52843713760376	1.1097809076309	0	-1.2252211689949	0.22340213775635
-0.046159878373146	-0.50964552164078	1.1350170373917	0	-1.2252211689949	0.27925267219543
-0.046167761087418	-0.48947066068649	1.1591680049896	0	-1.2252211689949	0.33510320663452
-0.046147659420967	-0.46798208355904	1.1821539402008	0	-1.2252211689949	0.39095374107361
-0.046128422021866	-0.44524353742599	1.2039031982422	0	-1.2252211689949	0.4468042755127
-0.046120896935463	-0.42132472991943	1.2243514060974	0	-1.2252211689949	0.50265480995178
-0.046143159270287	-0.39630603790283	1.2434282302856	0	-1.2252211689949	0.55850534439087
-0.046153947710991	-0.3702564239502	1.2610831260681	0	-1.2252211689949	0.61435587882996
-0.046174637973309	-0.34326326847076	1.277255654335	0	-1.2252211689949	0.67020641326904
-0.046182431280613	-0.31541007757187	1.2918956279755	0	-1.2252211689949	0.72605694770813
-0.046202711760998	-0.28678181767464	1.3049587011337	0	-1.2252211689949	0.78190748214722
-0.046228729188442	-0.25747174024582	1.316400885582	0	-1.2252211689949	0.8377580165863
-0.046250313520432	-0.22756779193878	1.3261896371841	0	-1.2252211689949	0.89360855102539
-0.046252451837063	-0.19716155529022	1.3342959880829	0	-1.2252211689949	0.94945908546448
-0.046271506696939	-0.16635316610336	1.3406901359558	0	-1.2252211689949	1.0053096199036
-0.046290002763271	-0.13523346185684	1.3453563451767	0	-1.2252211689949	1.0611601543427
-0.04630670696497	-0.10390432178974	1.3482761383057	0	-1.2252211689949	1.1170106887817
-0.046282976865768	-0.072457984089851	1.3494449853897	0	-1.2252211689949	1.1728612232208
-0.046293906867504	-0.040996946394444	1.3488552570343	0	-1.2252211689949	1.2287117576599
-0.046313904225826	-0.0096196606755257	1.3465095758438	0	-1.2252211689949	1.284562292099
-0.046334698796272	0.021580461412668	1.3424171209335	0	-1.2252211689949	1.3404128265381
-0.046355575323105	0.052501168102026	1.3365885019302	0	-1.2252211689949	1.3962633609772
-0.046375874429941	0.083049327135086	1.3290432691574	0	-1.2252211689949	1.4521138954163
-0.046407617628574	0.11313037574291	1.3198053836823	0	-1.2252211689949	1.5079644298553
-0.046409100294113	0.14264611899853	1.3089014291763	0	-1.2252211689949	1.5638149642944
-0.046410501003265	0.17150908708572	1.2963675260544	0	-1.2252211689949	1.6196654987335
-0.046427607536316	0.19962644577026	1.2822419404984	0	-1.2252211689949	1.6755160331726
-0.046450585126877	0.22691076993942	1.2665684223175	0	-1.2252211689949	1.7313665676117
-0.0464683547616	0.25327852368355	1.249396443367	0	-1.2252211689949	1.7872171020508
-0.046490676701069	0.2786473929882	1.2307798862457	0	-1.2252211689949	1.8430676364899
-0.046518608927727	0.30293574929237	1.2107754945755	0	-1.2252211689949	1.898918170929
-0.046516820788383	0.32607215642929	1.1894468069077	0	-1.2252211689949	1.954768705368
-0.046531237661839	0.34797954559326	1.1668598651886	0	-1.2252211689949	2.0106192398071
-0.046542271971703	0.36860257387161	1.1430854797363	0	-1.2252211689949	2.0664697742462
-0.046502023935318	0.38784754276276	1.1181972026825	0	-1.2252211689949	2.1223203086853
-0.046509087085724	0.4056815803051	1.0922725200653	0	-1.2252211689949	2.1781708431244
-0.046495795249939	0.42204147577286	1.0653936862946	0	-1.2252211689949	2.2340213775635
-0.046484678983688	0.43687552213669	1.0376424789429	0	-1.2252211689949	2.2898719120026
-0.046478316187859	0.45013684034348	1.0091069936752	0	-1.2252211689949	2.3457224464417
-0.046493396162987	0.46178430318832	0.97987562417984	0	-1.2252211689949	2.4015729808807
-0.0464938133955	0.47178196907043	0.95003998279572	0	-1.2252211689949	2.4574235153198
-0.046469449996948	0.48009949922562	0.91969239711761	0	-1.2252211689949	2.5132740497589
-0.04646372795105	0.4867091178894	0.88892781734467	0	-1.2252211689949	2.569124584198
-0.046475872397423	0.49159142374992	0.85784220695496	0	-1.2252211689949	2.6249751186371
-0.046468541026115	0.4947310090065	0.82653254270554	0	-1.2252211689949	2.6808256530762
-0.046464130282402	0.49611738324165	0.79509675502777	0	-1.2252211689949	2.7366761875153
-0.046467065811157	0.49574840068817	0.7636324763298	0	-1.2252211689949	2.7925267219543
-0.046443164348602	-0.017967386171222	0.24209532141685	0	-1.1938052415848	-2.0664697742462
-0.046427886933088	-0.049398548901081	0.24059849977493	0	-1.1938052415848	-2.0106192398071
-0.046420551836491	-0.080863907933235	0.24085792899132	0	-1.1938052415848	-1.954768705368
-0.046435564756393	-0.11226625740528	0.24287483096123	0	-1.1938052415848	-1.898918170929
-0.046454824507236	-0.14350667595863	0.24664083123207	0	-1.1938052415848	-1.8430676364899
-0.046482931822538	-0.17448845505714	0.25214520096779	0	-1.1938052415848	-1.7872171020508
-0.046507969498634	-0.20511454343796	0.25936985015869	0	-1.1938052415848	-1.7313665676117
-0.046518132090569	-0.23528991639614	0.26829323172569	0	-1.1938052415848	-1.6755160331726
-0.046518143266439	-0.26491993665695	0.27888694405556	0	-1.1938052415848	-1.6196654987335
-0.046518757939339	-0.29391232132912	0.29111835360527	0	-1.1938052415848	-1.5638149642944
-0.046464249491692	-0.61857259273529	0.7262669801712	0	-1.1938052415848	-0.55850534439087
-0.046471402049065	-0.62203937768936	0.75754308700562	0	-1.1938052415848	-0.50265480995178
-0.046461328864098	-0.62375557422638	0.78896355628967	0	-1.1938052415848	-0.4468042755127
-0.046444311738014	-0.6237159371376	0.820427775383	0	-1.1938052415848	-0.39095374107361
-0.046446427702904	-0.62191885709763	0.85184401273727	0	-1.1938052415848	-0.33510320663452
-0.046427115797997	-0.61837136745453	0.88310945034027	0	-1.1938052415848	-0.27925267219543
-0.04641655087471	-0.61308413743973	0.91412782669067	0	-1.1938052415848	-0.22340213775635
-0.046408653259277	-0.60607266426086	0.94480526447296	0	-1.1938052415848	-0.16755160331726
-0.046414569020271	-0.59736096858978	0.97504043579102	0	-1.1938052415848	-0.11170106887817
-0.046388551592827	-0.58697414398193	1.0047441720963	0	-1.1938052415848	-0.055850534439087
-0.046389773488045	-0.57494735717773	1.0338180065155	0	-1.1938052415848	0.0
-0.046369582414627	-0.56131362915039	1.0621794462204	0	-1.1938052415848	0.055850534439087
-0.046361491084099	-0.54611921310425	1.0897344350815	0	-1.1938052415848	0.11170106887817
-0.046337470412254	-0.52941089868546	1.1163973808289	0	-1.1938052415848	0.16755160331726
-0.046332225203514	-0.51123809814453	1.1420882940292	0	-1.1938052415848	0.22340213775635
-0.046358823776245	-0.49166113138199	1.1667232513428	0	-1.1938052415848	0.27925267219543
-0.046369731426239	-0.47073993086815	1.1902257204056	0	-1.1938052415848	0.33510320663452
-0.046368807554245	-0.44853866100311	1.2125253677368	0	-1.1938052415848	0.39095374107361
-0.046388313174248	-0.42512729763985	1.2335509061813	0	-1.1938052415848	0.4468042755127
-0.046364165842533	-0.40057939291	1.2532362937927	0	-1.1938052415848	0.50265480995178
-0.046347603201866	-0.37496918439865	1.2715208530426	0	-1.1938052415848	0.55850534439087
-0.046341717243195	-0.34837967157364	1.2883470058441	0	-1.1938052415848	0.61435587882996
-0.046333275735378	-0.32089221477509	1.3036632537842	0	-1.1938052415848	0.67020641326904
-0.046326629817486	-0.29259479045868	1.317419052124	0	-1.1938052415848	0.72605694770813
-0.046314291656017	-0.26356974244118	1.3295769691467	0	-1.1938052415848	0.78190748214722
-0.046306751668453	-0.2339124083519	1.3400948047638	0	-1.1938052415848	0.8377580165863
-0.046305470168591	-0.20371505618095	1.3489398956299	0	-1.1938052415848	0.89360855102539
-0.046318333595991	-0.17307044565678	1.3560861349106	0	-1.1938052415848	0.94945908546448
-0.046310622245073	-0.14207619428635	1.3615095615387	0	-1.1938052415848	1.0053096199036
-0.046307485550642	-0.11082591116428	1.3651956319809	0	-1.1938052415848	1.0611601543427
-0.046329185366631	-0.079419307410717	1.3671306371689	0	-1.1938052415848	1.1170106887817
-0.046349726617336	-0.047953307628632	1.3673098087311	0	-1.1938052415848	1.1728612232208
-0.046358995139599	-0.01652654632926	1.3657320737839	0	-1.1938052415848	1.2287117576599
-0.04637935757637	0.014764167368412	1.3624029159546	0	-1.1938052415848	1.284562292099
